3368	-9218	-35
3368	-9143	-34
3368	-9068	-33
3368	-8993	-32
3368	-8918	-31
3368	-8843	-31
3368	-8768	-30
3368	-8693	-27
3368	-8618	-25
3368	-8543	-24
3368	-8468	-24
3368	-8393	-24
3368	-8318	-24
3368	-8243	-24
3368	-8168	-24
3368	-8093	-25
3368	-8018	-27
3368	-7943	-33
3368	-7868	-43
3368	-7793	-49
3368	-7718	-50
3368	-7643	-48
3368	-7568	-47
3368	-7493	-47
3368	-7418	-48
3368	-7343	-48
3368	-7268	-48
3368	-7193	-47
3368	-7118	-45
3368	-7043	-44
3368	-6968	-45
3368	-6893	-45
3368	-6818	-45
3368	-6743	-44
3368	-6668	-45
3368	-6593	-46
3368	-6518	-46
3368	-6443	-47
3368	-6368	-50
3368	-6293	-56
3368	-6218	-64
3368	-6143	-73
3368	-6068	-82
3368	-5993	-89
3368	-5918	-94
3368	-5843	-98
3368	-5768	-98
3368	-5693	-97
3368	-5618	-99
3368	-5543	-105
3368	-5468	-110
3368	-5393	-112
3368	-5318	-114
3368	-5243	-116
3368	-5168	-116
3368	-5093	-114
3368	-5018	-113
3368	-4943	-112
3368	-4868	-113
3368	-4793	-116
3368	-4718	-120
3368	-4643	-118
3368	-4568	-115
3368	-4493	-113
3368	-4418	-113
3368	-4343	-109
3368	-4268	-103
3368	-4193	-98
3368	-4118	-93
3368	-4043	-90
3368	-3968	-88
3368	-3893	-87
3368	-3818	-85
3368	-3743	-84
3368	-3668	-84
3368	-3593	-83
3368	-3518	-83
3368	-3443	-83
3368	-3368	-83
3368	-3293	-82
3368	-3218	-82
3368	-3143	-83
3368	-3068	-83
3368	-2993	-86
3368	-2918	-88
3368	-2843	-93
3368	-2768	-98
3368	-2693	-106
3368	-2618	-116
3368	-2543	-126
3368	-2468	-136
3368	-2393	-145
3368	-2318	-152
3368	-2243	-159
3368	-2168	-165
3368	-2093	-173
3368	-2018	-181
3368	-1943	-186
3368	-1868	-191
3368	-1793	-197
3368	-1718	-202
3368	-1643	-207
3368	-1568	-212
3368	-1493	-217
3368	-1418	-221
3368	-1343	-224
3368	-1268	-224
3368	-1193	-224
3368	-1118	-222
3368	-1043	-219
3368	-968	-215
3368	-893	-209
3368	-818	-199
3368	-743	-186
3368	-668	-175
3368	-593	-168
3368	-518	-166
3368	-443	-166
3368	-368	-167
3368	-293	-167
3368	-218	-166
3368	-143	-164
3368	-68	-164
3368	7	-165
3368	82	-168
3368	157	-171
3368	232	-174
3368	307	-176
3368	382	-177
3368	457	-179
3368	532	-180
3368	607	-181
3368	682	-180
3368	757	-180
3368	832	-181
3368	907	-183
3368	982	-185
3368	1057	-186
3368	1132	-190
3368	1207	-192
3368	1282	-195
3368	1357	-198
3368	1432	-200
3368	1507	-202
3368	1582	-204
3368	1657	-206
3368	1732	-209
3368	1807	-212
3368	1882	-213
3368	1957	-214
3368	2032	-213
3368	2107	-212
3368	2182	-212
3368	2257	-212
3368	2332	-211
3368	2407	-210
3368	2482	-212
3368	2557	-213
3368	2632	-211
3368	2707	-208
3368	2782	-207
3368	2857	-207
3368	2932	-212
3368	3007	-229
3368	3082	-253
3368	3157	-270
3368	3232	-286
3368	3307	-300
3368	3382	-312
3368	3457	-320
3368	3532	-323
3368	3607	-318
3368	3682	-310
3368	3757	-303
3368	3832	-301
3368	3907	-301
3368	3982	-301
3368	4057	-296
3368	4132	-291
3368	4207	-285
3368	4282	-280
3368	4357	-276
3368	4432	-274
3368	4507	-277
3368	4582	-288
3368	4657	-308
3368	4732	-329
3368	4807	-346
3368	4882	-353
3368	4957	-346
3368	5032	-332
3368	5107	-316
3368	5182	-301
3368	5257	-283
3368	5332	-262
3368	5407	-241
3368	5482	-224
3368	5557	-211
3368	5632	-201
3368	5707	-195
3368	5782	-192
3368	5857	-191
3368	5932	-190
3368	6007	-188
3368	6082	-185
3368	6157	-181
3368	6232	-178
3368	6307	-176
3368	6382	-174
3368	6457	-173
3368	6532	-171
3368	6607	-170
3368	6682	-170
3368	6757	-171
3368	6832	-172
3368	6907	-173
3368	6982	-174
3368	7057	-175
3368	7132	-174
3368	7207	-173
3368	7282	-171
3368	7357	-169
3368	7432	-166
3368	7507	-163
3368	7582	-160
3368	7657	-161
3368	7732	-164
3368	7807	-167
3368	7882	-168
3368	7957	-168
3368	8032	-168
3368	8107	-167
3368	8182	-163
3368	8257	-160
3368	8332	-158
3368	8407	-158
3368	8482	-160
3368	8557	-163
3368	8632	-166
3368	8707	-169
3368	8782	-172
3368	8857	-175
3368	8932	-178
3368	9007	-181
3368	9082	-182
3368	9157	-182
3368	9232	-181
3368	9307	-180
3368	9382	-179
3368	9457	-179
3368	9532	-179
3368	9607	-178
3368	9682	-175
3368	9757	-173
3368	9832	-172
3368	9907	-173
3368	9982	-173
3368	10057	-175
3368	10132	-177
3368	10207	-179
3368	10282	-181
3368	10357	-184
3368	10432	-187
3368	10507	-191
3368	10582	-194
3368	10657	-199
3368	10732	-204
3368	10807	-210
3368	10882	-215
3368	10957	-222
3368	11032	-229
3368	11107	-234
3368	11182	-236
3368	11257	-237
3368	11332	-238
3368	11407	-237
3368	11482	-237
3368	11557	-237
3368	11632	-238
3368	11707	-239
3368	11782	-240
3368	11857	-240
3368	11932	-239
3368	12007	-237
3368	12082	-236
3368	12157	-236
3368	12232	-236
3368	12307	-235
3368	12382	-234
3368	12457	-234
3368	12532	-234
3368	12607	-235
3368	12682	-237
3368	12757	-239
3368	12832	-242
3368	12907	-243
3368	12982	-243
3368	13057	-242
3368	13132	-242
3368	13207	-242
3368	13282	-241
3368	13357	-242
3368	13432	-242
3368	13507	-241
3368	13582	-240
3368	13657	-240
3368	13732	-239
3368	13807	-239
3368	13882	-238
3368	13957	-237
3368	14032	-235
3368	14107	-234
3368	14182	-234
3368	14257	-232
3368	14332	-227
3368	14407	-227
3368	14482	-230
3368	14557	-231
3368	14632	-231
3368	14707	-229
3368	14782	-228
3368	14857	-227
3368	14932	-226
3368	15007	-226
3368	15082	-226
3368	15157	-228
3368	15232	-229
3368	15307	-228
3368	15382	-228
3368	15457	-227
3368	15532	-227
3368	15607	-226
3368	15682	-225
3368	15757	-224
3368	15832	-224
3368	15907	-225
3368	15982	-225
3368	16057	-226
3368	16132	-226
3368	16207	-225
3443	-18668	-99
3443	-18593	-102
3443	-18518	-105
3443	-18443	-106
3443	-18368	-106
3443	-18293	-105
3443	-18218	-104
3443	-18143	-105
3443	-18068	-107
3443	-17993	-108
3443	-17918	-109
3443	-17843	-109
3443	-17768	-110
3443	-17693	-112
3443	-17618	-115
3443	-17543	-119
3443	-17468	-123
3443	-17393	-125
3443	-17318	-127
3443	-17243	-131
3443	-17168	-133
3443	-17093	-134
3443	-17018	-136
3443	-16943	-138
3443	-16868	-141
3443	-16793	-144
3443	-16718	-149
3443	-16643	-154
3443	-16568	-162
3443	-16493	-171
3443	-16418	-183
3443	-16343	-198
3443	-16268	-215
3443	-16193	-231
3443	-16118	-248
3443	-16043	-265
3443	-15968	-283
3443	-15893	-295
3443	-15818	-299
3443	-15743	-291
3443	-15668	-278
3443	-15593	-265
3443	-15518	-251
3443	-15443	-239
3443	-15368	-230
3443	-15293	-223
3443	-15218	-217
3443	-15143	-213
3443	-15068	-209
3443	-14993	-206
3443	-14918	-204
3443	-14843	-205
3443	-14768	-203
3443	-14693	-199
3443	-14618	-195
3443	-14543	-192
3443	-14468	-190
3443	-14393	-188
3443	-14318	-186
3443	-14243	-183
3443	-14168	-180
3443	-14093	-177
3443	-14018	-177
3443	-13943	-175
3443	-13868	-172
3443	-13793	-168
3443	-13718	-165
3443	-13643	-168
3443	-13568	-175
3443	-13493	-180
3443	-13418	-178
3443	-13343	-174
3443	-13268	-173
3443	-13193	-175
3443	-13118	-181
3443	-13043	-188
3443	-12968	-194
3443	-12893	-200
3443	-12818	-203
3443	-12743	-201
3443	-12668	-195
3443	-12593	-187
3443	-12518	-179
3443	-12443	-173
3443	-12368	-169
3443	-12293	-160
3443	-12218	-146
3443	-12143	-133
3443	-12068	-123
3443	-11993	-118
3443	-11918	-113
3443	-11843	-108
3443	-11768	-104
3443	-11693	-98
3443	-11618	-93
3443	-11543	-90
3443	-11468	-87
3443	-11393	-85
3443	-11318	-84
3443	-11243	-83
3443	-11168	-82
3443	-11093	-80
3443	-11018	-79
3443	-10943	-78
3443	-10868	-76
3443	-10793	-75
3443	-10718	-75
3443	-10643	-74
3443	-10568	-73
3443	-10493	-71
3443	-10418	-69
3443	-10343	-68
3443	-10268	-69
3443	-10193	-71
3443	-10118	-72
3443	-10043	-71
3443	-9968	-68
3443	-9893	-62
3443	-9818	-56
3443	-9743	-50
3443	-9668	-47
3443	-9593	-43
3443	-9518	-40
3443	-9443	-38
3443	-9368	-37
3443	-9293	-35
3443	-9218	-35
3443	-9143	-34
3443	-9068	-33
3443	-8993	-32
3443	-8918	-31
3443	-8843	-30
3443	-8768	-29
3443	-8693	-26
3443	-8618	-25
3443	-8543	-24
3443	-8468	-24
3443	-8393	-24
3443	-8318	-24
3443	-8243	-24
3443	-8168	-25
3443	-8093	-26
3443	-8018	-27
3443	-7943	-30
3443	-7868	-37
3443	-7793	-42
3443	-7718	-44
3443	-7643	-44
3443	-7568	-45
3443	-7493	-46
3443	-7418	-48
3443	-7343	-49
3443	-7268	-50
3443	-7193	-48
3443	-7118	-45
3443	-7043	-42
3443	-6968	-42
3443	-6893	-42
3443	-6818	-43
3443	-6743	-43
3443	-6668	-44
3443	-6593	-46
3443	-6518	-47
3443	-6443	-49
3443	-6368	-53
3443	-6293	-59
3443	-6218	-69
3443	-6143	-79
3443	-6068	-87
3443	-5993	-93
3443	-5918	-97
3443	-5843	-102
3443	-5768	-103
3443	-5693	-103
3443	-5618	-104
3443	-5543	-110
3443	-5468	-114
3443	-5393	-116
3443	-5318	-119
3443	-5243	-121
3443	-5168	-120
3443	-5093	-117
3443	-5018	-115
3443	-4943	-115
3443	-4868	-116
3443	-4793	-120
3443	-4718	-123
3443	-4643	-121
3443	-4568	-118
3443	-4493	-115
3443	-4418	-112
3443	-4343	-107
3443	-4268	-102
3443	-4193	-97
3443	-4118	-93
3443	-4043	-91
3443	-3968	-88
3443	-3893	-86
3443	-3818	-85
3443	-3743	-84
3443	-3668	-83
3443	-3593	-82
3443	-3518	-81
3443	-3443	-81
3443	-3368	-80
3443	-3293	-80
3443	-3218	-80
3443	-3143	-81
3443	-3068	-81
3443	-2993	-82
3443	-2918	-85
3443	-2843	-90
3443	-2768	-95
3443	-2693	-102
3443	-2618	-111
3443	-2543	-121
3443	-2468	-128
3443	-2393	-133
3443	-2318	-138
3443	-2243	-146
3443	-2168	-156
3443	-2093	-168
3443	-2018	-178
3443	-1943	-184
3443	-1868	-188
3443	-1793	-194
3443	-1718	-201
3443	-1643	-208
3443	-1568	-213
3443	-1493	-217
3443	-1418	-218
3443	-1343	-217
3443	-1268	-217
3443	-1193	-218
3443	-1118	-217
3443	-1043	-216
3443	-968	-213
3443	-893	-209
3443	-818	-201
3443	-743	-189
3443	-668	-176
3443	-593	-167
3443	-518	-164
3443	-443	-164
3443	-368	-164
3443	-293	-164
3443	-218	-164
3443	-143	-163
3443	-68	-162
3443	7	-163
3443	82	-164
3443	157	-167
3443	232	-170
3443	307	-172
3443	382	-174
3443	457	-176
3443	532	-177
3443	607	-178
3443	682	-176
3443	757	-175
3443	832	-177
3443	907	-179
3443	982	-181
3443	1057	-182
3443	1132	-185
3443	1207	-189
3443	1282	-192
3443	1357	-195
3443	1432	-198
3443	1507	-200
3443	1582	-201
3443	1657	-203
3443	1732	-205
3443	1807	-208
3443	1882	-208
3443	1957	-208
3443	2032	-208
3443	2107	-208
3443	2182	-208
3443	2257	-208
3443	2332	-207
3443	2407	-207
3443	2482	-208
3443	2557	-209
3443	2632	-208
3443	2707	-205
3443	2782	-204
3443	2857	-205
3443	2932	-210
3443	3007	-225
3443	3082	-247
3443	3157	-263
3443	3232	-279
3443	3307	-296
3443	3382	-311
3443	3457	-321
3443	3532	-327
3443	3607	-325
3443	3682	-318
3443	3757	-310
3443	3832	-301
3443	3907	-294
3443	3982	-292
3443	4057	-289
3443	4132	-285
3443	4207	-281
3443	4282	-277
3443	4357	-274
3443	4432	-273
3443	4507	-275
3443	4582	-280
3443	4657	-294
3443	4732	-314
3443	4807	-335
3443	4882	-345
3443	4957	-339
3443	5032	-325
3443	5107	-310
3443	5182	-298
3443	5257	-281
3443	5332	-260
3443	5407	-239
3443	5482	-222
3443	5557	-210
3443	5632	-199
3443	5707	-192
3443	5782	-189
3443	5857	-187
3443	5932	-187
3443	6007	-186
3443	6082	-183
3443	6157	-180
3443	6232	-178
3443	6307	-176
3443	6382	-175
3443	6457	-173
3443	6532	-170
3443	6607	-169
3443	6682	-168
3443	6757	-168
3443	6832	-169
3443	6907	-170
3443	6982	-171
3443	7057	-171
3443	7132	-171
3443	7207	-170
3443	7282	-168
3443	7357	-167
3443	7432	-164
3443	7507	-161
3443	7582	-158
3443	7657	-159
3443	7732	-160
3443	7807	-163
3443	7882	-164
3443	7957	-165
3443	8032	-164
3443	8107	-163
3443	8182	-160
3443	8257	-156
3443	8332	-155
3443	8407	-156
3443	8482	-158
3443	8557	-161
3443	8632	-164
3443	8707	-167
3443	8782	-169
3443	8857	-172
3443	8932	-175
3443	9007	-178
3443	9082	-180
3443	9157	-182
3443	9232	-182
3443	9307	-180
3443	9382	-180
3443	9457	-180
3443	9532	-179
3443	9607	-177
3443	9682	-175
3443	9757	-173
3443	9832	-172
3443	9907	-173
3443	9982	-173
3443	10057	-174
3443	10132	-176
3443	10207	-177
3443	10282	-179
3443	10357	-182
3443	10432	-186
3443	10507	-189
3443	10582	-192
3443	10657	-196
3443	10732	-201
3443	10807	-206
3443	10882	-212
3443	10957	-220
3443	11032	-228
3443	11107	-233
3443	11182	-237
3443	11257	-238
3443	11332	-238
3443	11407	-237
3443	11482	-236
3443	11557	-235
3443	11632	-235
3443	11707	-235
3443	11782	-235
3443	11857	-235
3443	11932	-234
3443	12007	-233
3443	12082	-233
3443	12157	-233
3443	12232	-232
3443	12307	-231
3443	12382	-230
3443	12457	-230
3443	12532	-231
3443	12607	-232
3443	12682	-233
3443	12757	-234
3443	12832	-237
3443	12907	-240
3443	12982	-240
3443	13057	-239
3443	13132	-239
3443	13207	-238
3443	13282	-238
3443	13357	-239
3443	13432	-239
3443	13507	-238
3443	13582	-238
3443	13657	-237
3443	13732	-237
3443	13807	-236
3443	13882	-236
3443	13957	-234
3443	14032	-232
3443	14107	-232
3443	14182	-232
3443	14257	-230
3443	14332	-227
3443	14407	-226
3443	14482	-229
3443	14557	-230
3443	14632	-230
3443	14707	-229
3443	14782	-227
3443	14857	-226
3443	14932	-224
3443	15007	-224
3443	15082	-224
3443	15157	-226
3443	15232	-227
3443	15307	-226
3443	15382	-225
3443	15457	-226
3443	15532	-226
3443	15607	-225
3443	15682	-224
3443	15757	-223
3443	15832	-222
3443	15907	-222
3443	15982	-223
3443	16057	-224
3443	16132	-223
3443	16207	-224
3518	-18668	-98
3518	-18593	-100
3518	-18518	-102
3518	-18443	-103
3518	-18368	-103
3518	-18293	-102
3518	-18218	-102
3518	-18143	-103
3518	-18068	-104
3518	-17993	-105
3518	-17918	-106
3518	-17843	-107
3518	-17768	-108
3518	-17693	-111
3518	-17618	-114
3518	-17543	-118
3518	-17468	-121
3518	-17393	-122
3518	-17318	-124
3518	-17243	-126
3518	-17168	-129
3518	-17093	-130
3518	-17018	-132
3518	-16943	-135
3518	-16868	-138
3518	-16793	-142
3518	-16718	-146
3518	-16643	-151
3518	-16568	-158
3518	-16493	-167
3518	-16418	-177
3518	-16343	-190
3518	-16268	-205
3518	-16193	-221
3518	-16118	-239
3518	-16043	-259
3518	-15968	-279
3518	-15893	-293
3518	-15818	-294
3518	-15743	-282
3518	-15668	-270
3518	-15593	-257
3518	-15518	-244
3518	-15443	-232
3518	-15368	-224
3518	-15293	-217
3518	-15218	-212
3518	-15143	-208
3518	-15068	-205
3518	-14993	-204
3518	-14918	-204
3518	-14843	-207
3518	-14768	-208
3518	-14693	-205
3518	-14618	-200
3518	-14543	-194
3518	-14468	-191
3518	-14393	-191
3518	-14318	-189
3518	-14243	-185
3518	-14168	-180
3518	-14093	-175
3518	-14018	-173
3518	-13943	-171
3518	-13868	-170
3518	-13793	-168
3518	-13718	-164
3518	-13643	-165
3518	-13568	-172
3518	-13493	-178
3518	-13418	-177
3518	-13343	-171
3518	-13268	-167
3518	-13193	-170
3518	-13118	-175
3518	-13043	-180
3518	-12968	-185
3518	-12893	-189
3518	-12818	-189
3518	-12743	-187
3518	-12668	-183
3518	-12593	-179
3518	-12518	-174
3518	-12443	-167
3518	-12368	-161
3518	-12293	-154
3518	-12218	-143
3518	-12143	-130
3518	-12068	-121
3518	-11993	-116
3518	-11918	-110
3518	-11843	-105
3518	-11768	-101
3518	-11693	-96
3518	-11618	-92
3518	-11543	-90
3518	-11468	-88
3518	-11393	-86
3518	-11318	-84
3518	-11243	-83
3518	-11168	-82
3518	-11093	-81
3518	-11018	-79
3518	-10943	-78
3518	-10868	-76
3518	-10793	-76
3518	-10718	-75
3518	-10643	-75
3518	-10568	-74
3518	-10493	-72
3518	-10418	-70
3518	-10343	-69
3518	-10268	-72
3518	-10193	-77
3518	-10118	-80
3518	-10043	-80
3518	-9968	-76
3518	-9893	-69
3518	-9818	-60
3518	-9743	-53
3518	-9668	-47
3518	-9593	-43
3518	-9518	-40
3518	-9443	-38
3518	-9368	-37
3518	-9293	-36
3518	-9218	-35
3518	-9143	-34
3518	-9068	-33
3518	-8993	-32
3518	-8918	-30
3518	-8843	-29
3518	-8768	-27
3518	-8693	-25
3518	-8618	-24
3518	-8543	-24
3518	-8468	-24
3518	-8393	-24
3518	-8318	-24
3518	-8243	-24
3518	-8168	-25
3518	-8093	-27
3518	-8018	-28
3518	-7943	-29
3518	-7868	-32
3518	-7793	-36
3518	-7718	-39
3518	-7643	-41
3518	-7568	-43
3518	-7493	-45
3518	-7418	-46
3518	-7343	-47
3518	-7268	-47
3518	-7193	-46
3518	-7118	-44
3518	-7043	-42
3518	-6968	-42
3518	-6893	-42
3518	-6818	-43
3518	-6743	-44
3518	-6668	-45
3518	-6593	-46
3518	-6518	-48
3518	-6443	-51
3518	-6368	-55
3518	-6293	-62
3518	-6218	-71
3518	-6143	-81
3518	-6068	-91
3518	-5993	-98
3518	-5918	-103
3518	-5843	-108
3518	-5768	-109
3518	-5693	-108
3518	-5618	-110
3518	-5543	-115
3518	-5468	-118
3518	-5393	-120
3518	-5318	-124
3518	-5243	-126
3518	-5168	-124
3518	-5093	-121
3518	-5018	-118
3518	-4943	-117
3518	-4868	-119
3518	-4793	-121
3518	-4718	-123
3518	-4643	-121
3518	-4568	-118
3518	-4493	-114
3518	-4418	-110
3518	-4343	-105
3518	-4268	-101
3518	-4193	-97
3518	-4118	-94
3518	-4043	-91
3518	-3968	-88
3518	-3893	-85
3518	-3818	-84
3518	-3743	-83
3518	-3668	-82
3518	-3593	-81
3518	-3518	-80
3518	-3443	-79
3518	-3368	-78
3518	-3293	-78
3518	-3218	-78
3518	-3143	-78
3518	-3068	-78
3518	-2993	-80
3518	-2918	-83
3518	-2843	-87
3518	-2768	-93
3518	-2693	-99
3518	-2618	-107
3518	-2543	-115
3518	-2468	-119
3518	-2393	-121
3518	-2318	-124
3518	-2243	-133
3518	-2168	-145
3518	-2093	-158
3518	-2018	-168
3518	-1943	-174
3518	-1868	-178
3518	-1793	-185
3518	-1718	-194
3518	-1643	-204
3518	-1568	-211
3518	-1493	-214
3518	-1418	-212
3518	-1343	-210
3518	-1268	-210
3518	-1193	-213
3518	-1118	-214
3518	-1043	-213
3518	-968	-212
3518	-893	-211
3518	-818	-204
3518	-743	-192
3518	-668	-178
3518	-593	-167
3518	-518	-163
3518	-443	-162
3518	-368	-162
3518	-293	-162
3518	-218	-162
3518	-143	-161
3518	-68	-160
3518	7	-160
3518	82	-161
3518	157	-163
3518	232	-166
3518	307	-169
3518	382	-171
3518	457	-173
3518	532	-174
3518	607	-173
3518	682	-171
3518	757	-170
3518	832	-173
3518	907	-176
3518	982	-177
3518	1057	-178
3518	1132	-181
3518	1207	-186
3518	1282	-190
3518	1357	-193
3518	1432	-196
3518	1507	-198
3518	1582	-199
3518	1657	-199
3518	1732	-201
3518	1807	-202
3518	1882	-203
3518	1957	-204
3518	2032	-205
3518	2107	-205
3518	2182	-205
3518	2257	-204
3518	2332	-204
3518	2407	-203
3518	2482	-204
3518	2557	-205
3518	2632	-204
3518	2707	-202
3518	2782	-202
3518	2857	-203
3518	2932	-209
3518	3007	-224
3518	3082	-247
3518	3157	-264
3518	3232	-278
3518	3307	-295
3518	3382	-312
3518	3457	-322
3518	3532	-329
3518	3607	-330
3518	3682	-325
3518	3757	-316
3518	3832	-301
3518	3907	-288
3518	3982	-283
3518	4057	-282
3518	4132	-281
3518	4207	-278
3518	4282	-273
3518	4357	-272
3518	4432	-271
3518	4507	-272
3518	4582	-274
3518	4657	-281
3518	4732	-296
3518	4807	-317
3518	4882	-330
3518	4957	-326
3518	5032	-313
3518	5107	-298
3518	5182	-285
3518	5257	-270
3518	5332	-252
3518	5407	-235
3518	5482	-221
3518	5557	-208
3518	5632	-196
3518	5707	-187
3518	5782	-183
3518	5857	-183
3518	5932	-183
3518	6007	-184
3518	6082	-182
3518	6157	-180
3518	6232	-177
3518	6307	-175
3518	6382	-174
3518	6457	-172
3518	6532	-170
3518	6607	-168
3518	6682	-167
3518	6757	-166
3518	6832	-167
3518	6907	-167
3518	6982	-168
3518	7057	-168
3518	7132	-168
3518	7207	-167
3518	7282	-166
3518	7357	-165
3518	7432	-162
3518	7507	-159
3518	7582	-157
3518	7657	-157
3518	7732	-158
3518	7807	-160
3518	7882	-161
3518	7957	-161
3518	8032	-160
3518	8107	-160
3518	8182	-156
3518	8257	-154
3518	8332	-154
3518	8407	-156
3518	8482	-157
3518	8557	-158
3518	8632	-161
3518	8707	-164
3518	8782	-167
3518	8857	-170
3518	8932	-172
3518	9007	-176
3518	9082	-179
3518	9157	-182
3518	9232	-183
3518	9307	-181
3518	9382	-180
3518	9457	-179
3518	9532	-178
3518	9607	-177
3518	9682	-175
3518	9757	-173
3518	9832	-172
3518	9907	-172
3518	9982	-173
3518	10057	-173
3518	10132	-174
3518	10207	-176
3518	10282	-178
3518	10357	-181
3518	10432	-184
3518	10507	-188
3518	10582	-191
3518	10657	-194
3518	10732	-197
3518	10807	-202
3518	10882	-208
3518	10957	-217
3518	11032	-225
3518	11107	-232
3518	11182	-236
3518	11257	-238
3518	11332	-238
3518	11407	-236
3518	11482	-235
3518	11557	-233
3518	11632	-232
3518	11707	-231
3518	11782	-230
3518	11857	-229
3518	11932	-229
3518	12007	-230
3518	12082	-229
3518	12157	-229
3518	12232	-228
3518	12307	-226
3518	12382	-226
3518	12457	-227
3518	12532	-228
3518	12607	-229
3518	12682	-230
3518	12757	-230
3518	12832	-232
3518	12907	-235
3518	12982	-236
3518	13057	-236
3518	13132	-235
3518	13207	-235
3518	13282	-235
3518	13357	-236
3518	13432	-236
3518	13507	-236
3518	13582	-235
3518	13657	-235
3518	13732	-234
3518	13807	-234
3518	13882	-234
3518	13957	-233
3518	14032	-231
3518	14107	-229
3518	14182	-229
3518	14257	-228
3518	14332	-225
3518	14407	-226
3518	14482	-228
3518	14557	-228
3518	14632	-228
3518	14707	-227
3518	14782	-226
3518	14857	-225
3518	14932	-223
3518	15007	-223
3518	15082	-222
3518	15157	-223
3518	15232	-224
3518	15307	-224
3518	15382	-223
3518	15457	-224
3518	15532	-224
3518	15607	-224
3518	15682	-222
3518	15757	-221
3518	15832	-221
3518	15907	-220
3518	15982	-221
3518	16057	-221
3518	16132	-221
3518	16207	-221
3593	-18668	-95
3593	-18593	-97
3593	-18518	-99
3593	-18443	-100
3593	-18368	-100
3593	-18293	-99
3593	-18218	-99
3593	-18143	-100
3593	-18068	-101
3593	-17993	-102
3593	-17918	-104
3593	-17843	-105
3593	-17768	-108
3593	-17693	-111
3593	-17618	-114
3593	-17543	-117
3593	-17468	-119
3593	-17393	-120
3593	-17318	-121
3593	-17243	-122
3593	-17168	-124
3593	-17093	-125
3593	-17018	-127
3593	-16943	-131
3593	-16868	-135
3593	-16793	-140
3593	-16718	-144
3593	-16643	-148
3593	-16568	-155
3593	-16493	-163
3593	-16418	-173
3593	-16343	-183
3593	-16268	-196
3593	-16193	-212
3593	-16118	-230
3593	-16043	-249
3593	-15968	-269
3593	-15893	-283
3593	-15818	-283
3593	-15743	-270
3593	-15668	-258
3593	-15593	-247
3593	-15518	-236
3593	-15443	-225
3593	-15368	-217
3593	-15293	-212
3593	-15218	-208
3593	-15143	-204
3593	-15068	-201
3593	-14993	-202
3593	-14918	-204
3593	-14843	-209
3593	-14768	-213
3593	-14693	-213
3593	-14618	-208
3593	-14543	-201
3593	-14468	-199
3593	-14393	-200
3593	-14318	-200
3593	-14243	-195
3593	-14168	-187
3593	-14093	-179
3593	-14018	-173
3593	-13943	-169
3593	-13868	-167
3593	-13793	-166
3593	-13718	-162
3593	-13643	-162
3593	-13568	-168
3593	-13493	-175
3593	-13418	-176
3593	-13343	-169
3593	-13268	-164
3593	-13193	-164
3593	-13118	-168
3593	-13043	-173
3593	-12968	-176
3593	-12893	-179
3593	-12818	-176
3593	-12743	-174
3593	-12668	-172
3593	-12593	-172
3593	-12518	-170
3593	-12443	-161
3593	-12368	-153
3593	-12293	-147
3593	-12218	-138
3593	-12143	-129
3593	-12068	-121
3593	-11993	-115
3593	-11918	-108
3593	-11843	-102
3593	-11768	-98
3593	-11693	-95
3593	-11618	-93
3593	-11543	-90
3593	-11468	-88
3593	-11393	-86
3593	-11318	-85
3593	-11243	-83
3593	-11168	-82
3593	-11093	-81
3593	-11018	-79
3593	-10943	-77
3593	-10868	-76
3593	-10793	-77
3593	-10718	-77
3593	-10643	-75
3593	-10568	-74
3593	-10493	-73
3593	-10418	-70
3593	-10343	-70
3593	-10268	-74
3593	-10193	-83
3593	-10118	-89
3593	-10043	-89
3593	-9968	-85
3593	-9893	-76
3593	-9818	-67
3593	-9743	-57
3593	-9668	-49
3593	-9593	-43
3593	-9518	-39
3593	-9443	-38
3593	-9368	-37
3593	-9293	-37
3593	-9218	-36
3593	-9143	-34
3593	-9068	-33
3593	-8993	-31
3593	-8918	-29
3593	-8843	-27
3593	-8768	-26
3593	-8693	-25
3593	-8618	-24
3593	-8543	-24
3593	-8468	-24
3593	-8393	-24
3593	-8318	-24
3593	-8243	-25
3593	-8168	-27
3593	-8093	-29
3593	-8018	-30
3593	-7943	-29
3593	-7868	-31
3593	-7793	-34
3593	-7718	-36
3593	-7643	-38
3593	-7568	-40
3593	-7493	-42
3593	-7418	-43
3593	-7343	-42
3593	-7268	-42
3593	-7193	-43
3593	-7118	-42
3593	-7043	-43
3593	-6968	-43
3593	-6893	-43
3593	-6818	-44
3593	-6743	-45
3593	-6668	-45
3593	-6593	-46
3593	-6518	-49
3593	-6443	-53
3593	-6368	-58
3593	-6293	-64
3593	-6218	-73
3593	-6143	-83
3593	-6068	-94
3593	-5993	-105
3593	-5918	-112
3593	-5843	-116
3593	-5768	-115
3593	-5693	-114
3593	-5618	-115
3593	-5543	-119
3593	-5468	-121
3593	-5393	-125
3593	-5318	-129
3593	-5243	-130
3593	-5168	-127
3593	-5093	-123
3593	-5018	-120
3593	-4943	-119
3593	-4868	-120
3593	-4793	-121
3593	-4718	-122
3593	-4643	-120
3593	-4568	-117
3593	-4493	-113
3593	-4418	-109
3593	-4343	-105
3593	-4268	-102
3593	-4193	-100
3593	-4118	-98
3593	-4043	-94
3593	-3968	-88
3593	-3893	-84
3593	-3818	-84
3593	-3743	-82
3593	-3668	-81
3593	-3593	-80
3593	-3518	-79
3593	-3443	-78
3593	-3368	-77
3593	-3293	-76
3593	-3218	-76
3593	-3143	-76
3593	-3068	-76
3593	-2993	-78
3593	-2918	-81
3593	-2843	-86
3593	-2768	-90
3593	-2693	-95
3593	-2618	-102
3593	-2543	-107
3593	-2468	-110
3593	-2393	-112
3593	-2318	-116
3593	-2243	-125
3593	-2168	-136
3593	-2093	-148
3593	-2018	-156
3593	-1943	-162
3593	-1868	-167
3593	-1793	-177
3593	-1718	-188
3593	-1643	-197
3593	-1568	-204
3593	-1493	-206
3593	-1418	-204
3593	-1343	-202
3593	-1268	-203
3593	-1193	-207
3593	-1118	-210
3593	-1043	-211
3593	-968	-212
3593	-893	-212
3593	-818	-207
3593	-743	-196
3593	-668	-181
3593	-593	-169
3593	-518	-162
3593	-443	-160
3593	-368	-160
3593	-293	-160
3593	-218	-160
3593	-143	-159
3593	-68	-158
3593	7	-157
3593	82	-157
3593	157	-159
3593	232	-162
3593	307	-164
3593	382	-167
3593	457	-169
3593	532	-169
3593	607	-168
3593	682	-166
3593	757	-165
3593	832	-169
3593	907	-172
3593	982	-173
3593	1057	-175
3593	1132	-178
3593	1207	-183
3593	1282	-187
3593	1357	-190
3593	1432	-193
3593	1507	-195
3593	1582	-196
3593	1657	-196
3593	1732	-196
3593	1807	-197
3593	1882	-199
3593	1957	-201
3593	2032	-202
3593	2107	-203
3593	2182	-202
3593	2257	-202
3593	2332	-201
3593	2407	-200
3593	2482	-201
3593	2557	-201
3593	2632	-201
3593	2707	-200
3593	2782	-200
3593	2857	-202
3593	2932	-212
3593	3007	-232
3593	3082	-256
3593	3157	-273
3593	3232	-284
3593	3307	-298
3593	3382	-313
3593	3457	-323
3593	3532	-329
3593	3607	-330
3593	3682	-327
3593	3757	-318
3593	3832	-301
3593	3907	-282
3593	3982	-273
3593	4057	-274
3593	4132	-275
3593	4207	-273
3593	4282	-269
3593	4357	-267
3593	4432	-266
3593	4507	-266
3593	4582	-266
3593	4657	-268
3593	4732	-278
3593	4807	-295
3593	4882	-309
3593	4957	-308
3593	5032	-295
3593	5107	-278
3593	5182	-263
3593	5257	-251
3593	5332	-239
3593	5407	-228
3593	5482	-218
3593	5557	-207
3593	5632	-195
3593	5707	-183
3593	5782	-178
3593	5857	-177
3593	5932	-179
3593	6007	-181
3593	6082	-181
3593	6157	-179
3593	6232	-176
3593	6307	-174
3593	6382	-173
3593	6457	-171
3593	6532	-169
3593	6607	-167
3593	6682	-166
3593	6757	-165
3593	6832	-164
3593	6907	-164
3593	6982	-165
3593	7057	-166
3593	7132	-165
3593	7207	-163
3593	7282	-163
3593	7357	-162
3593	7432	-161
3593	7507	-158
3593	7582	-156
3593	7657	-155
3593	7732	-157
3593	7807	-158
3593	7882	-159
3593	7957	-158
3593	8032	-157
3593	8107	-156
3593	8182	-154
3593	8257	-153
3593	8332	-153
3593	8407	-155
3593	8482	-156
3593	8557	-157
3593	8632	-160
3593	8707	-162
3593	8782	-165
3593	8857	-168
3593	8932	-171
3593	9007	-174
3593	9082	-178
3593	9157	-182
3593	9232	-183
3593	9307	-182
3593	9382	-180
3593	9457	-178
3593	9532	-178
3593	9607	-176
3593	9682	-174
3593	9757	-172
3593	9832	-171
3593	9907	-172
3593	9982	-172
3593	10057	-173
3593	10132	-174
3593	10207	-175
3593	10282	-177
3593	10357	-180
3593	10432	-183
3593	10507	-186
3593	10582	-189
3593	10657	-191
3593	10732	-194
3593	10807	-198
3593	10882	-205
3593	10957	-213
3593	11032	-221
3593	11107	-229
3593	11182	-235
3593	11257	-237
3593	11332	-237
3593	11407	-236
3593	11482	-234
3593	11557	-232
3593	11632	-230
3593	11707	-228
3593	11782	-226
3593	11857	-224
3593	11932	-225
3593	12007	-226
3593	12082	-225
3593	12157	-224
3593	12232	-223
3593	12307	-222
3593	12382	-221
3593	12457	-223
3593	12532	-225
3593	12607	-225
3593	12682	-226
3593	12757	-227
3593	12832	-228
3593	12907	-230
3593	12982	-232
3593	13057	-232
3593	13132	-232
3593	13207	-231
3593	13282	-231
3593	13357	-232
3593	13432	-233
3593	13507	-233
3593	13582	-234
3593	13657	-233
3593	13732	-232
3593	13807	-232
3593	13882	-232
3593	13957	-231
3593	14032	-229
3593	14107	-228
3593	14182	-227
3593	14257	-226
3593	14332	-224
3593	14407	-224
3593	14482	-226
3593	14557	-227
3593	14632	-226
3593	14707	-225
3593	14782	-224
3593	14857	-224
3593	14932	-223
3593	15007	-222
3593	15082	-220
3593	15157	-221
3593	15232	-221
3593	15307	-222
3593	15382	-222
3593	15457	-222
3593	15532	-222
3593	15607	-222
3593	15682	-221
3593	15757	-220
3593	15832	-220
3593	15907	-219
3593	15982	-219
3593	16057	-219
3593	16132	-219
3593	16207	-220
3668	-18668	-93
3668	-18593	-95
3668	-18518	-97
3668	-18443	-98
3668	-18368	-97
3668	-18293	-96
3668	-18218	-96
3668	-18143	-97
3668	-18068	-99
3668	-17993	-100
3668	-17918	-102
3668	-17843	-104
3668	-17768	-108
3668	-17693	-111
3668	-17618	-114
3668	-17543	-116
3668	-17468	-117
3668	-17393	-117
3668	-17318	-118
3668	-17243	-119
3668	-17168	-120
3668	-17093	-122
3668	-17018	-124
3668	-16943	-129
3668	-16868	-133
3668	-16793	-138
3668	-16718	-142
3668	-16643	-147
3668	-16568	-153
3668	-16493	-161
3668	-16418	-169
3668	-16343	-178
3668	-16268	-189
3668	-16193	-203
3668	-16118	-219
3668	-16043	-236
3668	-15968	-253
3668	-15893	-266
3668	-15818	-269
3668	-15743	-259
3668	-15668	-247
3668	-15593	-236
3668	-15518	-227
3668	-15443	-219
3668	-15368	-211
3668	-15293	-206
3668	-15218	-203
3668	-15143	-200
3668	-15068	-199
3668	-14993	-201
3668	-14918	-206
3668	-14843	-213
3668	-14768	-218
3668	-14693	-218
3668	-14618	-214
3668	-14543	-209
3668	-14468	-208
3668	-14393	-210
3668	-14318	-210
3668	-14243	-203
3668	-14168	-194
3668	-14093	-185
3668	-14018	-177
3668	-13943	-170
3668	-13868	-166
3668	-13793	-163
3668	-13718	-160
3668	-13643	-158
3668	-13568	-163
3668	-13493	-171
3668	-13418	-175
3668	-13343	-169
3668	-13268	-162
3668	-13193	-160
3668	-13118	-162
3668	-13043	-167
3668	-12968	-170
3668	-12893	-170
3668	-12818	-166
3668	-12743	-163
3668	-12668	-163
3668	-12593	-165
3668	-12518	-164
3668	-12443	-155
3668	-12368	-146
3668	-12293	-140
3668	-12218	-134
3668	-12143	-128
3668	-12068	-122
3668	-11993	-115
3668	-11918	-108
3668	-11843	-101
3668	-11768	-96
3668	-11693	-94
3668	-11618	-93
3668	-11543	-90
3668	-11468	-88
3668	-11393	-86
3668	-11318	-85
3668	-11243	-83
3668	-11168	-82
3668	-11093	-81
3668	-11018	-79
3668	-10943	-77
3668	-10868	-77
3668	-10793	-78
3668	-10718	-78
3668	-10643	-77
3668	-10568	-75
3668	-10493	-74
3668	-10418	-72
3668	-10343	-72
3668	-10268	-77
3668	-10193	-87
3668	-10118	-95
3668	-10043	-97
3668	-9968	-92
3668	-9893	-81
3668	-9818	-70
3668	-9743	-60
3668	-9668	-49
3668	-9593	-43
3668	-9518	-40
3668	-9443	-38
3668	-9368	-37
3668	-9293	-36
3668	-9218	-35
3668	-9143	-34
3668	-9068	-32
3668	-8993	-30
3668	-8918	-28
3668	-8843	-27
3668	-8768	-26
3668	-8693	-25
3668	-8618	-24
3668	-8543	-24
3668	-8468	-24
3668	-8393	-24
3668	-8318	-25
3668	-8243	-26
3668	-8168	-28
3668	-8093	-30
3668	-8018	-32
3668	-7943	-31
3668	-7868	-32
3668	-7793	-33
3668	-7718	-34
3668	-7643	-36
3668	-7568	-37
3668	-7493	-39
3668	-7418	-39
3668	-7343	-39
3668	-7268	-40
3668	-7193	-41
3668	-7118	-42
3668	-7043	-43
3668	-6968	-43
3668	-6893	-44
3668	-6818	-45
3668	-6743	-45
3668	-6668	-46
3668	-6593	-48
3668	-6518	-51
3668	-6443	-55
3668	-6368	-60
3668	-6293	-67
3668	-6218	-75
3668	-6143	-84
3668	-6068	-98
3668	-5993	-113
3668	-5918	-123
3668	-5843	-125
3668	-5768	-122
3668	-5693	-119
3668	-5618	-120
3668	-5543	-125
3668	-5468	-126
3668	-5393	-129
3668	-5318	-133
3668	-5243	-134
3668	-5168	-130
3668	-5093	-124
3668	-5018	-120
3668	-4943	-120
3668	-4868	-121
3668	-4793	-122
3668	-4718	-121
3668	-4643	-118
3668	-4568	-115
3668	-4493	-112
3668	-4418	-108
3668	-4343	-105
3668	-4268	-104
3668	-4193	-105
3668	-4118	-105
3668	-4043	-98
3668	-3968	-89
3668	-3893	-84
3668	-3818	-83
3668	-3743	-82
3668	-3668	-80
3668	-3593	-79
3668	-3518	-78
3668	-3443	-77
3668	-3368	-76
3668	-3293	-75
3668	-3218	-76
3668	-3143	-76
3668	-3068	-76
3668	-2993	-78
3668	-2918	-80
3668	-2843	-84
3668	-2768	-87
3668	-2693	-91
3668	-2618	-96
3668	-2543	-100
3668	-2468	-103
3668	-2393	-108
3668	-2318	-115
3668	-2243	-123
3668	-2168	-132
3668	-2093	-140
3668	-2018	-146
3668	-1943	-152
3668	-1868	-163
3668	-1793	-176
3668	-1718	-184
3668	-1643	-189
3668	-1568	-192
3668	-1493	-194
3668	-1418	-193
3668	-1343	-193
3668	-1268	-196
3668	-1193	-202
3668	-1118	-205
3668	-1043	-207
3668	-968	-209
3668	-893	-211
3668	-818	-207
3668	-743	-196
3668	-668	-182
3668	-593	-169
3668	-518	-161
3668	-443	-157
3668	-368	-156
3668	-293	-156
3668	-218	-157
3668	-143	-157
3668	-68	-156
3668	7	-155
3668	82	-155
3668	157	-155
3668	232	-157
3668	307	-158
3668	382	-161
3668	457	-163
3668	532	-163
3668	607	-162
3668	682	-160
3668	757	-161
3668	832	-164
3668	907	-168
3668	982	-170
3668	1057	-172
3668	1132	-175
3668	1207	-179
3668	1282	-183
3668	1357	-186
3668	1432	-189
3668	1507	-191
3668	1582	-192
3668	1657	-193
3668	1732	-193
3668	1807	-194
3668	1882	-197
3668	1957	-199
3668	2032	-200
3668	2107	-201
3668	2182	-200
3668	2257	-200
3668	2332	-198
3668	2407	-198
3668	2482	-198
3668	2557	-199
3668	2632	-198
3668	2707	-197
3668	2782	-198
3668	2857	-204
3668	2932	-221
3668	3007	-247
3668	3082	-270
3668	3157	-283
3668	3232	-290
3668	3307	-300
3668	3382	-311
3668	3457	-319
3668	3532	-324
3668	3607	-326
3668	3682	-325
3668	3757	-318
3668	3832	-300
3668	3907	-278
3668	3982	-264
3668	4057	-264
3668	4132	-267
3668	4207	-266
3668	4282	-262
3668	4357	-260
3668	4432	-259
3668	4507	-257
3668	4582	-253
3668	4657	-251
3668	4732	-258
3668	4807	-273
3668	4882	-285
3668	4957	-284
3668	5032	-271
3668	5107	-253
3668	5182	-239
3668	5257	-231
3668	5332	-225
3668	5407	-220
3668	5482	-214
3668	5557	-205
3668	5632	-193
3668	5707	-181
3668	5782	-174
3668	5857	-174
3668	5932	-175
3668	6007	-177
3668	6082	-178
3668	6157	-178
3668	6232	-175
3668	6307	-172
3668	6382	-170
3668	6457	-168
3668	6532	-166
3668	6607	-165
3668	6682	-164
3668	6757	-163
3668	6832	-162
3668	6907	-161
3668	6982	-162
3668	7057	-163
3668	7132	-163
3668	7207	-160
3668	7282	-159
3668	7357	-159
3668	7432	-158
3668	7507	-157
3668	7582	-155
3668	7657	-155
3668	7732	-155
3668	7807	-157
3668	7882	-157
3668	7957	-156
3668	8032	-155
3668	8107	-154
3668	8182	-152
3668	8257	-152
3668	8332	-153
3668	8407	-155
3668	8482	-155
3668	8557	-157
3668	8632	-159
3668	8707	-161
3668	8782	-163
3668	8857	-166
3668	8932	-170
3668	9007	-174
3668	9082	-178
3668	9157	-181
3668	9232	-182
3668	9307	-182
3668	9382	-179
3668	9457	-177
3668	9532	-176
3668	9607	-175
3668	9682	-173
3668	9757	-171
3668	9832	-171
3668	9907	-171
3668	9982	-171
3668	10057	-172
3668	10132	-174
3668	10207	-175
3668	10282	-176
3668	10357	-178
3668	10432	-182
3668	10507	-185
3668	10582	-187
3668	10657	-190
3668	10732	-192
3668	10807	-196
3668	10882	-201
3668	10957	-207
3668	11032	-215
3668	11107	-225
3668	11182	-232
3668	11257	-236
3668	11332	-236
3668	11407	-235
3668	11482	-234
3668	11557	-231
3668	11632	-228
3668	11707	-226
3668	11782	-224
3668	11857	-222
3668	11932	-222
3668	12007	-222
3668	12082	-221
3668	12157	-220
3668	12232	-219
3668	12307	-218
3668	12382	-217
3668	12457	-218
3668	12532	-220
3668	12607	-221
3668	12682	-223
3668	12757	-223
3668	12832	-224
3668	12907	-226
3668	12982	-228
3668	13057	-229
3668	13132	-229
3668	13207	-228
3668	13282	-228
3668	13357	-229
3668	13432	-229
3668	13507	-231
3668	13582	-232
3668	13657	-232
3668	13732	-230
3668	13807	-230
3668	13882	-229
3668	13957	-229
3668	14032	-228
3668	14107	-227
3668	14182	-225
3668	14257	-224
3668	14332	-222
3668	14407	-221
3668	14482	-224
3668	14557	-224
3668	14632	-223
3668	14707	-223
3668	14782	-223
3668	14857	-222
3668	14932	-222
3668	15007	-220
3668	15082	-218
3668	15157	-218
3668	15232	-219
3668	15307	-220
3668	15382	-221
3668	15457	-220
3668	15532	-219
3668	15607	-220
3668	15682	-220
3668	15757	-219
3668	15832	-219
3668	15907	-218
3668	15982	-218
3668	16057	-218
3668	16132	-219
3668	16207	-219
3743	-18668	-90
3743	-18593	-93
3743	-18518	-95
3743	-18443	-95
3743	-18368	-94
3743	-18293	-93
3743	-18218	-93
3743	-18143	-94
3743	-18068	-96
3743	-17993	-98
3743	-17918	-100
3743	-17843	-104
3743	-17768	-107
3743	-17693	-110
3743	-17618	-111
3743	-17543	-112
3743	-17468	-113
3743	-17393	-114
3743	-17318	-114
3743	-17243	-115
3743	-17168	-117
3743	-17093	-119
3743	-17018	-122
3743	-16943	-127
3743	-16868	-131
3743	-16793	-136
3743	-16718	-140
3743	-16643	-145
3743	-16568	-151
3743	-16493	-157
3743	-16418	-164
3743	-16343	-173
3743	-16268	-182
3743	-16193	-194
3743	-16118	-207
3743	-16043	-221
3743	-15968	-234
3743	-15893	-244
3743	-15818	-251
3743	-15743	-247
3743	-15668	-237
3743	-15593	-228
3743	-15518	-220
3743	-15443	-213
3743	-15368	-206
3743	-15293	-201
3743	-15218	-198
3743	-15143	-196
3743	-15068	-196
3743	-14993	-201
3743	-14918	-209
3743	-14843	-218
3743	-14768	-223
3743	-14693	-224
3743	-14618	-221
3743	-14543	-218
3743	-14468	-217
3743	-14393	-218
3743	-14318	-216
3743	-14243	-208
3743	-14168	-198
3743	-14093	-188
3743	-14018	-179
3743	-13943	-171
3743	-13868	-165
3743	-13793	-161
3743	-13718	-158
3743	-13643	-155
3743	-13568	-158
3743	-13493	-166
3743	-13418	-173
3743	-13343	-170
3743	-13268	-163
3743	-13193	-157
3743	-13118	-159
3743	-13043	-163
3743	-12968	-164
3743	-12893	-161
3743	-12818	-158
3743	-12743	-156
3743	-12668	-156
3743	-12593	-158
3743	-12518	-155
3743	-12443	-147
3743	-12368	-139
3743	-12293	-135
3743	-12218	-131
3743	-12143	-127
3743	-12068	-122
3743	-11993	-116
3743	-11918	-108
3743	-11843	-101
3743	-11768	-97
3743	-11693	-95
3743	-11618	-93
3743	-11543	-90
3743	-11468	-88
3743	-11393	-87
3743	-11318	-85
3743	-11243	-83
3743	-11168	-83
3743	-11093	-82
3743	-11018	-80
3743	-10943	-79
3743	-10868	-79
3743	-10793	-79
3743	-10718	-78
3743	-10643	-77
3743	-10568	-76
3743	-10493	-76
3743	-10418	-74
3743	-10343	-75
3743	-10268	-81
3743	-10193	-90
3743	-10118	-98
3743	-10043	-98
3743	-9968	-92
3743	-9893	-82
3743	-9818	-71
3743	-9743	-61
3743	-9668	-50
3743	-9593	-44
3743	-9518	-40
3743	-9443	-38
3743	-9368	-36
3743	-9293	-35
3743	-9218	-34
3743	-9143	-33
3743	-9068	-31
3743	-8993	-29
3743	-8918	-28
3743	-8843	-27
3743	-8768	-26
3743	-8693	-26
3743	-8618	-25
3743	-8543	-25
3743	-8468	-25
3743	-8393	-25
3743	-8318	-25
3743	-8243	-27
3743	-8168	-29
3743	-8093	-31
3743	-8018	-32
3743	-7943	-32
3743	-7868	-32
3743	-7793	-33
3743	-7718	-34
3743	-7643	-35
3743	-7568	-36
3743	-7493	-37
3743	-7418	-37
3743	-7343	-38
3743	-7268	-39
3743	-7193	-41
3743	-7118	-42
3743	-7043	-43
3743	-6968	-44
3743	-6893	-45
3743	-6818	-46
3743	-6743	-46
3743	-6668	-48
3743	-6593	-50
3743	-6518	-53
3743	-6443	-56
3743	-6368	-61
3743	-6293	-67
3743	-6218	-76
3743	-6143	-86
3743	-6068	-101
3743	-5993	-119
3743	-5918	-133
3743	-5843	-134
3743	-5768	-130
3743	-5693	-127
3743	-5618	-127
3743	-5543	-131
3743	-5468	-133
3743	-5393	-135
3743	-5318	-137
3743	-5243	-137
3743	-5168	-132
3743	-5093	-126
3743	-5018	-121
3743	-4943	-121
3743	-4868	-122
3743	-4793	-122
3743	-4718	-120
3743	-4643	-118
3743	-4568	-114
3743	-4493	-111
3743	-4418	-109
3743	-4343	-107
3743	-4268	-107
3743	-4193	-110
3743	-4118	-111
3743	-4043	-103
3743	-3968	-92
3743	-3893	-84
3743	-3818	-82
3743	-3743	-82
3743	-3668	-81
3743	-3593	-79
3743	-3518	-77
3743	-3443	-75
3743	-3368	-74
3743	-3293	-74
3743	-3218	-75
3743	-3143	-75
3743	-3068	-75
3743	-2993	-77
3743	-2918	-79
3743	-2843	-82
3743	-2768	-85
3743	-2693	-89
3743	-2618	-93
3743	-2543	-96
3743	-2468	-101
3743	-2393	-106
3743	-2318	-113
3743	-2243	-120
3743	-2168	-127
3743	-2093	-132
3743	-2018	-138
3743	-1943	-148
3743	-1868	-160
3743	-1793	-171
3743	-1718	-176
3743	-1643	-178
3743	-1568	-180
3743	-1493	-182
3743	-1418	-182
3743	-1343	-184
3743	-1268	-190
3743	-1193	-196
3743	-1118	-200
3743	-1043	-201
3743	-968	-203
3743	-893	-205
3743	-818	-199
3743	-743	-189
3743	-668	-177
3743	-593	-164
3743	-518	-154
3743	-443	-149
3743	-368	-148
3743	-293	-150
3743	-218	-152
3743	-143	-153
3743	-68	-153
3743	7	-151
3743	82	-152
3743	157	-153
3743	232	-154
3743	307	-155
3743	382	-158
3743	457	-160
3743	532	-160
3743	607	-159
3743	682	-157
3743	757	-157
3743	832	-160
3743	907	-163
3743	982	-165
3743	1057	-167
3743	1132	-171
3743	1207	-174
3743	1282	-178
3743	1357	-181
3743	1432	-184
3743	1507	-187
3743	1582	-188
3743	1657	-189
3743	1732	-190
3743	1807	-192
3743	1882	-194
3743	1957	-196
3743	2032	-198
3743	2107	-198
3743	2182	-198
3743	2257	-197
3743	2332	-195
3743	2407	-193
3743	2482	-194
3743	2557	-195
3743	2632	-195
3743	2707	-195
3743	2782	-198
3743	2857	-209
3743	2932	-232
3743	3007	-259
3743	3082	-279
3743	3157	-289
3743	3232	-295
3743	3307	-302
3743	3382	-310
3743	3457	-316
3743	3532	-319
3743	3607	-321
3743	3682	-322
3743	3757	-317
3743	3832	-301
3743	3907	-278
3743	3982	-258
3743	4057	-255
3743	4132	-257
3743	4207	-258
3743	4282	-254
3743	4357	-252
3743	4432	-251
3743	4507	-247
3743	4582	-241
3743	4657	-234
3743	4732	-237
3743	4807	-246
3743	4882	-256
3743	4957	-257
3743	5032	-249
3743	5107	-236
3743	5182	-225
3743	5257	-219
3743	5332	-215
3743	5407	-212
3743	5482	-208
3743	5557	-201
3743	5632	-191
3743	5707	-181
3743	5782	-174
3743	5857	-173
3743	5932	-173
3743	6007	-173
3743	6082	-174
3743	6157	-174
3743	6232	-172
3743	6307	-168
3743	6382	-165
3743	6457	-164
3743	6532	-163
3743	6607	-163
3743	6682	-163
3743	6757	-162
3743	6832	-160
3743	6907	-159
3743	6982	-160
3743	7057	-160
3743	7132	-160
3743	7207	-157
3743	7282	-156
3743	7357	-156
3743	7432	-156
3743	7507	-156
3743	7582	-155
3743	7657	-155
3743	7732	-154
3743	7807	-154
3743	7882	-155
3743	7957	-155
3743	8032	-155
3743	8107	-154
3743	8182	-154
3743	8257	-153
3743	8332	-153
3743	8407	-153
3743	8482	-154
3743	8557	-155
3743	8632	-157
3743	8707	-159
3743	8782	-161
3743	8857	-165
3743	8932	-169
3743	9007	-173
3743	9082	-177
3743	9157	-180
3743	9232	-180
3743	9307	-180
3743	9382	-179
3743	9457	-177
3743	9532	-175
3743	9607	-172
3743	9682	-170
3743	9757	-170
3743	9832	-169
3743	9907	-170
3743	9982	-170
3743	10057	-172
3743	10132	-174
3743	10207	-175
3743	10282	-176
3743	10357	-177
3743	10432	-180
3743	10507	-183
3743	10582	-186
3743	10657	-188
3743	10732	-190
3743	10807	-193
3743	10882	-196
3743	10957	-201
3743	11032	-208
3743	11107	-218
3743	11182	-227
3743	11257	-232
3743	11332	-234
3743	11407	-234
3743	11482	-232
3743	11557	-230
3743	11632	-227
3743	11707	-225
3743	11782	-223
3743	11857	-220
3743	11932	-219
3743	12007	-219
3743	12082	-218
3743	12157	-217
3743	12232	-216
3743	12307	-215
3743	12382	-215
3743	12457	-215
3743	12532	-215
3743	12607	-217
3743	12682	-219
3743	12757	-220
3743	12832	-220
3743	12907	-221
3743	12982	-224
3743	13057	-226
3743	13132	-226
3743	13207	-225
3743	13282	-225
3743	13357	-226
3743	13432	-227
3743	13507	-228
3743	13582	-229
3743	13657	-230
3743	13732	-228
3743	13807	-228
3743	13882	-228
3743	13957	-228
3743	14032	-226
3743	14107	-225
3743	14182	-224
3743	14257	-223
3743	14332	-221
3743	14407	-220
3743	14482	-221
3743	14557	-222
3743	14632	-221
3743	14707	-220
3743	14782	-221
3743	14857	-221
3743	14932	-220
3743	15007	-218
3743	15082	-217
3743	15157	-217
3743	15232	-217
3743	15307	-218
3743	15382	-219
3743	15457	-218
3743	15532	-218
3743	15607	-218
3743	15682	-218
3743	15757	-217
3743	15832	-217
3743	15907	-217
3743	15982	-217
3743	16057	-217
3743	16132	-217
3743	16207	-218
3818	-18668	-88
3818	-18593	-90
3818	-18518	-92
3818	-18443	-93
3818	-18368	-91
3818	-18293	-90
3818	-18218	-91
3818	-18143	-93
3818	-18068	-95
3818	-17993	-97
3818	-17918	-100
3818	-17843	-103
3818	-17768	-107
3818	-17693	-108
3818	-17618	-109
3818	-17543	-109
3818	-17468	-110
3818	-17393	-111
3818	-17318	-111
3818	-17243	-112
3818	-17168	-115
3818	-17093	-118
3818	-17018	-121
3818	-16943	-124
3818	-16868	-128
3818	-16793	-133
3818	-16718	-137
3818	-16643	-143
3818	-16568	-148
3818	-16493	-154
3818	-16418	-160
3818	-16343	-168
3818	-16268	-176
3818	-16193	-186
3818	-16118	-196
3818	-16043	-206
3818	-15968	-216
3818	-15893	-227
3818	-15818	-237
3818	-15743	-235
3818	-15668	-227
3818	-15593	-218
3818	-15518	-212
3818	-15443	-207
3818	-15368	-201
3818	-15293	-196
3818	-15218	-194
3818	-15143	-194
3818	-15068	-196
3818	-14993	-202
3818	-14918	-211
3818	-14843	-220
3818	-14768	-224
3818	-14693	-226
3818	-14618	-225
3818	-14543	-225
3818	-14468	-225
3818	-14393	-223
3818	-14318	-218
3818	-14243	-209
3818	-14168	-199
3818	-14093	-188
3818	-14018	-179
3818	-13943	-172
3818	-13868	-166
3818	-13793	-160
3818	-13718	-155
3818	-13643	-151
3818	-13568	-154
3818	-13493	-161
3818	-13418	-169
3818	-13343	-168
3818	-13268	-161
3818	-13193	-154
3818	-13118	-155
3818	-13043	-158
3818	-12968	-156
3818	-12893	-152
3818	-12818	-149
3818	-12743	-148
3818	-12668	-149
3818	-12593	-150
3818	-12518	-147
3818	-12443	-140
3818	-12368	-135
3818	-12293	-132
3818	-12218	-129
3818	-12143	-126
3818	-12068	-123
3818	-11993	-118
3818	-11918	-111
3818	-11843	-103
3818	-11768	-98
3818	-11693	-95
3818	-11618	-93
3818	-11543	-91
3818	-11468	-90
3818	-11393	-88
3818	-11318	-86
3818	-11243	-84
3818	-11168	-83
3818	-11093	-82
3818	-11018	-81
3818	-10943	-81
3818	-10868	-80
3818	-10793	-80
3818	-10718	-79
3818	-10643	-78
3818	-10568	-77
3818	-10493	-76
3818	-10418	-76
3818	-10343	-79
3818	-10268	-84
3818	-10193	-91
3818	-10118	-96
3818	-10043	-95
3818	-9968	-89
3818	-9893	-80
3818	-9818	-71
3818	-9743	-61
3818	-9668	-50
3818	-9593	-44
3818	-9518	-40
3818	-9443	-38
3818	-9368	-36
3818	-9293	-34
3818	-9218	-33
3818	-9143	-32
3818	-9068	-30
3818	-8993	-29
3818	-8918	-28
3818	-8843	-27
3818	-8768	-26
3818	-8693	-26
3818	-8618	-26
3818	-8543	-26
3818	-8468	-27
3818	-8393	-27
3818	-8318	-27
3818	-8243	-29
3818	-8168	-30
3818	-8093	-32
3818	-8018	-32
3818	-7943	-32
3818	-7868	-32
3818	-7793	-33
3818	-7718	-34
3818	-7643	-35
3818	-7568	-36
3818	-7493	-37
3818	-7418	-38
3818	-7343	-38
3818	-7268	-40
3818	-7193	-41
3818	-7118	-42
3818	-7043	-43
3818	-6968	-44
3818	-6893	-46
3818	-6818	-48
3818	-6743	-48
3818	-6668	-49
3818	-6593	-52
3818	-6518	-54
3818	-6443	-58
3818	-6368	-63
3818	-6293	-69
3818	-6218	-77
3818	-6143	-86
3818	-6068	-101
3818	-5993	-122
3818	-5918	-140
3818	-5843	-141
3818	-5768	-138
3818	-5693	-138
3818	-5618	-141
3818	-5543	-142
3818	-5468	-143
3818	-5393	-143
3818	-5318	-143
3818	-5243	-142
3818	-5168	-136
3818	-5093	-128
3818	-5018	-123
3818	-4943	-121
3818	-4868	-121
3818	-4793	-122
3818	-4718	-120
3818	-4643	-118
3818	-4568	-114
3818	-4493	-113
3818	-4418	-112
3818	-4343	-112
3818	-4268	-111
3818	-4193	-114
3818	-4118	-115
3818	-4043	-107
3818	-3968	-95
3818	-3893	-84
3818	-3818	-81
3818	-3743	-80
3818	-3668	-80
3818	-3593	-79
3818	-3518	-76
3818	-3443	-74
3818	-3368	-73
3818	-3293	-73
3818	-3218	-73
3818	-3143	-74
3818	-3068	-75
3818	-2993	-75
